# .PCD v0.7 - Point Cloud Data file format
VERSION 0.7
FIELDS x y z intensity
SIZE 4 4 4 4
TYPE F F F F
COUNT 1 1 1 1
WIDTH 2267
HEIGHT 1
VIEWPOINT 0 0 0 1 0 0 0
POINTS 2267
DATA ascii
21.13 7.84 -1.25 18.0
11.57 4.4 -1.5 16.0
13.0 4.94 -1.45 9.0
14.93 5.66 -1.39 9.0
17.48 6.62 -1.32 12.0
21.32 8.07 -1.24 18.0
25.96 9.83 -1.05 2.0
11.64 4.52 -1.49 8.0
13.08 5.07 -1.44 10.0
15.06 5.83 -1.39 11.0
17.64 6.82 -1.32 13.0
21.54 8.32 -1.23 19.0
6.15 2.43 -0.78 25.0
13.15 5.2 -1.44 9.0
15.2 6.0 -1.39 13.0
17.81 7.02 -1.31 13.0
21.8 8.59 -1.21 19.0
27.94 11.01 -1.06 0.0
6.08 2.45 -0.77 25.0
13.23 5.33 -1.43 9.0
15.33 6.17 -1.38 12.0
18.04 7.25 -1.3 13.0
22.01 8.84 -1.19 19.0
28.9 11.61 -1.06 1.0
5.88 2.42 -0.73 25.0
13.36 5.49 -1.42 10.0
15.48 6.35 -1.37 12.0
18.44 7.55 -1.3 14.0
22.35 9.15 -1.18 17.0
28.77 11.78 -1.01 2.0
5.93 2.48 -0.73 24.0
13.5 5.65 -1.42 11.0
15.67 6.55 -1.36 10.0
18.8 7.85 -1.3 13.0
22.58 9.42 -1.16 13.0
29.08 12.13 -0.97 1.0
6.1 2.6 -0.74 23.0
13.68 5.83 -1.42 12.0
15.9 6.77 -1.36 11.0
19.27 8.19 -1.3 15.0
22.62 9.61 -1.12 4.0
28.94 12.29 -0.91 3.0
12.33 5.36 -1.48 1.0
13.86 6.02 -1.41 10.0
16.2 7.02 -1.35 11.0
19.62 8.49 -1.29 16.0
23.07 9.98 -1.1 3.0
28.77 12.44 -0.85 13.0
6.24 2.76 -0.74 24.0
14.09 6.22 -1.41 11.0
16.37 7.22 -1.34 11.0
19.98 8.8 -1.27 15.0
24.27 10.68 -1.1 1.0
28.58 12.58 -0.79 19.0
12.57 5.66 -1.46 1.0
14.27 6.41 -1.4 14.0
16.68 7.49 -1.33 12.0
20.34 9.12 -1.25 17.0
25.09 11.24 -1.09 1.0
28.39 12.72 -0.72 55.0
12.63 5.79 -1.45 9.0
14.46 6.61 -1.39 13.0
16.98 7.75 -1.32 12.0
20.73 9.45 -1.23 18.0
28.23 12.86 -0.65 8.0
12.77 5.95 -1.43 11.0
14.7 6.83 -1.38 13.0
17.56 8.15 -1.32 13.0
21.25 9.85 -1.21 14.0
23.19 10.74 -0.9 7.0
23.2 10.75 -0.48 52.0
12.97 6.14 -1.42 12.0
15.03 7.1 -1.37 10.0
18.05 8.52 -1.32 14.0
21.58 10.17 -1.18 5.0
23.02 10.84 -0.84 6.0
23.02 10.84 -0.42 77.0
13.24 6.37 -1.42 11.0
15.36 7.37 -1.36 10.0
18.57 8.9 -1.31 15.0
22.35 10.7 -1.16 3.0
22.91 10.96 -0.77 6.0
22.84 10.93 -0.35 79.0
13.48 6.59 -1.41 13.0
15.69 7.65 -1.35 11.0
19.05 9.27 -1.29 16.0
22.67 11.02 -1.12 4.0
22.71 11.04 -0.7 5.0
22.69 11.03 -0.29 83.0
13.72 6.81 -1.4 13.0
16.04 7.94 -1.34 11.0
19.59 9.68 -1.27 17.0
22.64 11.18 -1.05 4.0
22.5 11.1 -0.63 70.0
22.55 11.13 -0.22 82.0
14.0 7.05 -1.39 12.0
16.57 8.33 -1.34 12.0
20.04 10.05 -1.24 13.0
22.4 11.23 -0.98 29.0
22.35 11.2 -0.56 77.0
22.42 11.23 -0.15 69.0
5.33 2.73 -0.51 16.0
5.34 2.72 -0.41 13.0
5.39 2.74 -0.32 3.0
22.21 11.3 -0.9 66.0
22.2 11.28 -0.49 80.0
22.31 11.34 -0.08 7.0
5.29 2.74 -0.49 24.0
5.28 2.73 -0.39 63.0
5.32 2.75 -0.3 9.0
22.04 11.37 -0.82 75.0
22.05 11.37 -0.41 82.0
23.46 12.1 -0.01 0.0
5.28 2.77 -0.47 61.0
5.26 2.76 -0.37 150.0
5.3 2.77 -0.28 38.0
5.31 2.78 -0.18 75.0
5.3 2.77 -0.08 55.0
5.31 2.78 0.01 34.0
5.26 2.8 -0.46 26.0
5.26 2.79 -0.36 80.0
5.3 2.82 -0.26 18.0
5.3 2.81 -0.16 23.0
5.3 2.81 -0.06 27.0
5.3 2.81 0.03 29.0
5.27 2.85 -0.44 13.0
5.28 2.84 -0.34 20.0
21.62 11.63 -0.99 41.0
21.59 11.6 -0.58 73.0
21.67 11.64 -0.18 7.0
21.88 11.76 0.22 36.0
16.83 9.2 -1.34 13.0
20.04 10.93 -1.22 6.0
21.48 11.71 -0.9 65.0
21.47 11.69 -0.5 76.0
21.92 11.93 -0.1 1.0
21.85 11.9 0.31 9.0
17.48 9.68 -1.33 14.0
21.16 11.69 -1.21 2.0
21.33 11.77 -0.81 62.0
21.34 11.77 -0.41 81.0
21.93 12.09 -0.02 0.0
18.1 10.14 -1.31 15.0
21.58 12.07 -1.15 2.0
21.18 11.83 -0.73 42.0
21.22 11.85 -0.33 62.0
21.41 11.95 0.07 40.0
18.7 10.6 -1.27 16.0
21.08 11.93 -1.04 23.0
21.07 11.91 -0.64 71.0
21.06 11.9 -0.24 52.0
21.69 12.26 0.16 3.0
19.4 11.13 -1.24 6.0
20.95 12.0 -0.94 60.0
20.95 11.98 -0.55 75.0
21.08 12.05 -0.15 17.0
21.88 12.51 0.26 2.0
20.42 11.85 -1.22 2.0
20.83 12.06 -0.85 11.0
20.84 12.05 -0.45 76.0
20.98 12.13 -0.06 10.0
49.74 28.8 1.74 22.0
20.76 12.17 -1.15 3.0
20.81 12.18 -0.76 5.0
20.75 12.14 -0.36 79.0
21.42 12.52 0.03 0.0
20.63 12.22 -1.05 3.0
20.69 12.24 -0.66 6.0
20.71 12.24 -0.26 64.0
45.9 27.12 0.28 14.0
20.53 12.29 -0.95 5.0
20.48 12.24 -0.56 53.0
20.7 12.36 -0.17 2.0
52.99 31.64 0.58 15.0
20.4 12.33 -0.85 3.0
20.39 12.3 -0.46 83.0
21.54 12.99 -0.07 0.0
52.52 31.68 0.83 7.0
49.71 30.04 2.68 6.0
20.27 12.37 -0.75 14.0
20.42 12.44 -0.36 63.0
45.33 27.61 0.07 35.0
43.07 26.25 1.72 3.0
42.86 26.17 2.53 4.0
20.17 12.42 -0.64 83.0
20.54 12.63 -0.26 12.0
45.56 28.01 0.29 2.0
42.89 26.4 1.93 38.0
42.83 26.4 2.75 150.0
20.14 12.5 -0.54 40.0
21.54 13.37 -0.17 3.0
42.81 26.55 0.49 18.0
42.81 26.56 1.32 47.0
42.77 26.56 2.14 69.0
42.75 26.6 2.97 150.0
20.27 12.69 -0.44 36.0
51.08 31.95 -0.13 13.0
42.79 26.81 2.37 151.0
49.49 31.06 3.7 24.0
20.42 12.89 -0.34 15.0
50.85 32.06 0.13 3.0
50.78 32.08 3.08 7.0
50.54 32.0 4.05 51.0
20.98 13.34 -0.24 2.0
50.15 32.01 4.3 43.0
49.92 31.96 -0.3 14.0
50.24 32.16 0.67 6.0
49.64 32.0 -0.02 5.0
49.58 32.17 0.25 5.0
21.35 14.86 4.49 0.0
21.42 14.79 4.44 0.0
21.32 14.78 5.15 0.0
16.45 11.38 4.07 0.0
21.46 14.61 4.5 0.0
16.53 11.4 4.19 0.0
16.56 11.21 4.11 1.0
16.6 11.19 4.21 0.0
21.88 14.13 5.12 0.0
5.12 3.25 1.0 0.0
5.12 3.22 1.02 0.0
5.12 3.26 1.24 0.0
22.08 13.77 4.5 0.0
5.17 3.24 1.16 1.0
5.12 3.23 1.26 0.0
5.2 3.23 1.19 0.0
5.1 3.19 1.28 0.0
5.23 3.22 1.22 0.0
5.12 3.17 1.3 0.0
5.25 3.18 1.13 0.0
5.25 3.21 1.24 1.0
5.3 3.18 1.16 5.0
5.06 3.06 1.21 1.0
5.24 3.12 1.16 1.0
5.1 3.05 1.24 1.0
5.14 3.02 1.15 1.0
5.16 3.05 1.27 1.0
11.8 7.2 3.97 0.0
5.16 3.0 1.17 1.0
5.23 3.06 1.3 1.0
5.3 3.17 1.68 1.0
5.18 2.98 1.19 1.0
5.27 3.05 1.33 0.0
5.3 3.11 1.57 23.0
5.28 3.13 1.68 255.0
5.26 3.14 1.8 14.0
5.23 2.98 1.22 1.0
5.26 3.01 1.34 1.0
5.3 3.08 1.58 206.0
5.27 3.08 1.69 239.0
5.28 3.12 1.82 237.0
5.24 2.95 1.23 0.0
5.29 2.99 1.36 0.0
5.3 3.02 1.48 175.0
5.26 3.02 1.58 236.0
5.27 3.05 1.71 245.0
5.28 3.08 1.84 221.0
5.35 2.97 1.27 0.0
5.37 3.0 1.39 6.0
5.28 2.97 1.48 235.0
5.26 2.98 1.6 241.0
5.27 3.01 1.72 249.0
5.27 3.04 1.84 239.0
5.35 2.95 1.4 5.0
5.28 2.93 1.49 219.0
5.26 2.94 1.61 240.0
5.26 2.96 1.73 255.0
5.28 3.0 1.86 243.0
5.33 2.89 1.29 2.0
5.35 2.92 1.41 0.0
5.28 2.89 1.5 240.0
5.26 2.9 1.61 239.0
5.26 2.93 1.74 255.0
5.28 2.96 1.87 242.0
5.28 2.82 1.28 22.0
5.31 2.85 1.41 107.0
5.26 2.84 1.51 255.0
5.25 2.86 1.62 255.0
5.26 2.89 1.75 255.0
5.28 2.92 1.88 228.0
5.21 2.75 1.28 7.0
5.28 2.8 1.41 151.0
5.26 2.81 1.51 255.0
5.26 2.82 1.63 255.0
5.26 2.85 1.75 255.0
5.27 2.88 1.88 255.0
5.17 2.69 1.27 1.0
5.31 2.78 1.42 150.0
5.26 2.77 1.52 251.0
5.25 2.78 1.64 255.0
5.25 2.8 1.76 255.0
5.27 2.83 1.89 255.0
5.22 2.68 1.29 4.0
5.3 2.73 1.43 14.0
5.27 2.73 1.53 255.0
5.24 2.74 1.64 253.0
5.24 2.76 1.76 255.0
5.26 2.79 1.89 255.0
5.22 2.64 1.3 9.0
5.28 2.7 1.54 255.0
5.24 2.7 1.65 251.0
5.25 2.72 1.77 255.0
5.26 2.75 1.89 241.0
5.22 2.6 1.3 11.0
5.28 2.66 1.54 255.0
5.24 2.65 1.65 247.0
5.24 2.68 1.77 247.0
5.25 2.7 1.89 243.0
5.27 2.58 1.32 5.0
5.28 2.62 1.55 235.0
5.24 2.61 1.65 250.0
5.24 2.63 1.77 244.0
5.25 2.66 1.9 243.0
5.28 2.55 1.33 3.0
5.29 2.58 1.55 0.0
5.27 2.59 1.67 254.0
5.23 2.59 1.77 251.0
5.25 2.61 1.9 255.0
5.29 2.52 1.33 2.0
13.5 6.48 3.97 0.0
5.28 2.55 1.67 28.0
5.23 2.55 1.77 255.0
5.28 2.59 1.91 1.0
5.31 2.48 1.34 0.0
13.6 6.42 4.01 0.0
5.32 2.55 1.8 0.0
33.71 15.32 9.21 3.0
33.79 15.09 9.23 9.0
33.82 14.12 9.87 1.0
33.88 13.76 8.46 9.0
14.72 6.0 3.98 0.0
33.86 13.87 9.85 2.0
14.81 5.93 3.98 0.0
14.95 5.87 4.01 0.0
15.09 5.81 4.02 0.0
15.34 5.79 4.07 0.0
15.47 5.72 4.08 0.0
15.64 5.66 4.1 0.0
17.15 4.95 4.1 0.0
17.4 4.9 4.11 0.0
17.5 4.8 4.08 0.0
22.78 6.1 4.83 0.0
17.69 4.73 4.07 1.0
17.89 4.66 4.06 0.0
18.25 4.63 4.08 0.0
22.16 5.19 4.34 0.0
22.19 5.19 4.74 0.0
21.72 4.64 4.79 0.0
21.68 4.51 4.31 0.0
21.31 4.02 4.36 2.0
21.33 4.01 4.74 0.0
21.01 3.83 4.21 2.0
21.32 3.77 4.18 3.0
21.14 3.59 4.42 0.0
21.03 3.56 4.77 1.0
21.03 3.45 4.3 0.0
21.23 3.36 4.25 2.0
21.16 3.22 4.14 0.0
20.77 3.15 4.42 0.0
20.75 3.13 4.78 0.0
20.75 3.03 4.32 0.0
40.99 5.78 7.63 9.0
40.97 5.74 8.32 22.0
40.97 5.71 9.02 18.0
41.03 5.67 5.4 20.0
41.05 5.63 6.07 16.0
20.51 2.74 4.41 0.0
40.81 5.42 5.18 1.0
21.73 2.81 4.2 0.0
20.38 2.62 4.28 0.0
65.22 7.96 7.67 5.0
50.19 5.81 6.47 4.0
49.8 5.46 6.98 14.0
49.77 5.41 7.79 16.0
22.14 2.37 4.19 0.0
27.56 2.56 4.33 0.0
91.01 8.26 9.46 8.0
171.19 3.83 2.65 151.0
171.1 3.19 1.63 62.0
48.11 0.59 -0.82 3.0
279.13 1.89 5.82 150.0
33.92 0.18 -0.99 1.0
187.38 0.65 2.76 158.0
30.54 0.06 -1.08 4.0
150.37 -0.13 5.69 103.0
27.52 -0.04 -1.14 3.0
187.3 -0.65 3.17 150.0
122.08 -0.49 3.84 25.0
25.57 -0.12 -1.22 5.0
31.58 -0.16 -1.05 5.0
51.94 -0.31 -0.21 49.0
187.35 -1.23 1.97 150.0
118.65 -0.83 2.98 159.0
23.74 -0.18 -1.28 5.0
28.99 -0.24 -1.15 5.0
51.61 -0.47 -0.53 9.0
51.63 -0.49 0.22 10.0
114.29 -1.14 2.14 255.0
22.03 -0.24 -1.33 4.0
26.24 -0.29 -1.2 6.0
31.98 -0.37 -1.0 2.0
51.6 -0.62 -0.86 2.0
51.38 -0.64 -0.11 78.0
20.68 -0.28 -1.38 7.0
24.35 -0.34 -1.27 6.0
29.69 -0.43 -1.12 5.0
51.25 -0.78 -0.44 63.0
51.14 -0.8 0.3 7.0
19.35 -0.32 -1.42 8.0
22.5 -0.38 -1.32 5.0
26.77 -0.46 -1.18 5.0
32.09 -0.57 -0.95 1.0
51.46 -0.93 -0.77 10.0
50.96 -0.93 -0.03 80.0
18.24 -0.36 -1.45 8.0
21.06 -0.42 -1.37 9.0
24.93 -0.5 -1.26 8.0
30.34 -0.62 -1.09 5.0
50.81 -1.06 -0.36 50.0
17.06 -0.38 -1.47 9.0
19.65 -0.44 -1.4 10.0
22.91 -0.52 -1.3 5.0
27.39 -0.63 -1.16 4.0
50.9 -1.2 -0.69 11.0
16.12 -0.4 -1.49 9.0
18.51 -0.47 -1.44 11.0
21.34 -0.54 -1.35 12.0
25.4 -0.65 -1.24 8.0
20.95 -0.54 -0.72 6.0
15.03 -0.42 -1.49 8.0
17.37 -0.48 -1.47 10.0
19.99 -0.56 -1.4 10.0
23.27 -0.65 -1.29 5.0
21.01 -0.59 -0.86 8.0
20.96 -0.59 -0.56 0.0
14.24 -0.43 -1.51 7.0
16.33 -0.49 -1.49 9.0
18.77 -0.57 -1.44 12.0
21.61 -0.66 -1.34 10.0
20.95 -0.64 -1.0 8.0
13.52 -0.44 -1.52 6.0
15.22 -0.5 -1.49 8.0
17.6 -0.58 -1.47 11.0
20.23 -0.67 -1.39 9.0
21.01 -0.69 -1.14 6.0
20.89 -0.69 -0.83 18.0
12.85 -0.45 -1.53 7.0
14.39 -0.51 -1.5 7.0
16.5 -0.58 -1.49 10.0
18.96 -0.67 -1.43 12.0
21.83 -0.77 -1.33 8.0
20.81 -0.73 -0.97 30.0
12.24 -0.46 -1.54 7.0
13.62 -0.51 -1.52 6.0
15.32 -0.57 -1.48 8.0
17.76 -0.66 -1.46 11.0
20.4 -0.76 -1.38 9.0
21.05 -0.78 -1.12 7.0
11.68 -0.46 -1.55 7.0
12.94 -0.51 -1.53 8.0
14.46 -0.57 -1.5 7.0
16.7 -0.66 -1.48 10.0
19.09 -0.75 -1.42 13.0
21.95 -0.86 -1.32 6.0
11.17 -0.47 -1.56 7.0
12.33 -0.51 -1.54 8.0
13.75 -0.57 -1.52 6.0
15.48 -0.64 -1.48 8.0
17.95 -0.74 -1.46 11.0
20.58 -0.85 -1.37 9.0
10.71 -0.47 -1.57 7.0
11.74 -0.51 -1.55 7.0
13.01 -0.57 -1.52 6.0
14.58 -0.63 -1.49 7.0
16.78 -0.72 -1.48 10.0
19.22 -0.82 -1.41 13.0
10.27 -0.47 -1.57 7.0
11.21 -0.51 -1.55 7.0
12.42 -0.56 -1.54 8.0
13.84 -0.62 -1.51 8.0
15.57 -0.7 -1.47 8.0
18.06 -0.81 -1.45 11.0
9.87 -0.47 -1.58 8.0
10.76 -0.51 -1.57 7.0
11.83 -0.56 -1.55 7.0
13.12 -0.62 -1.52 6.0
14.67 -0.68 -1.49 7.0
16.89 -0.78 -1.47 10.0
9.5 -0.47 -1.59 7.0
10.33 -0.51 -1.57 7.0
11.31 -0.56 -1.56 8.0
12.49 -0.61 -1.53 8.0
13.9 -0.67 -1.5 8.0
15.66 -0.75 -1.47 8.0
9.14 -0.47 -1.59 6.0
9.91 -0.51 -1.58 7.0
10.83 -0.55 -1.56 7.0
11.9 -0.6 -1.54 8.0
13.17 -0.66 -1.52 8.0
14.74 -0.73 -1.48 8.0
8.8 -0.47 -1.6 6.0
9.52 -0.5 -1.58 8.0
10.38 -0.54 -1.57 7.0
11.33 -0.59 -1.55 7.0
12.54 -0.64 -1.53 8.0
13.95 -0.71 -1.5 8.0
8.51 -0.47 -1.61 7.0
9.18 -0.5 -1.59 7.0
9.97 -0.54 -1.58 7.0
10.85 -0.58 -1.56 8.0
11.93 -0.63 -1.54 8.0
13.21 -0.69 -1.51 7.0
8.24 -0.47 -1.61 7.0
8.85 -0.49 -1.6 8.0
9.57 -0.53 -1.59 7.0
10.41 -0.57 -1.57 7.0
11.38 -0.61 -1.55 8.0
12.57 -0.67 -1.53 8.0
7.98 -0.46 -1.62 7.0
8.54 -0.49 -1.6 7.0
9.21 -0.52 -1.59 7.0
10.0 -0.56 -1.58 7.0
10.9 -0.6 -1.56 7.0
11.96 -0.65 -1.54 8.0
7.74 -0.46 -1.63 6.0
8.27 -0.49 -1.61 7.0
8.88 -0.51 -1.6 8.0
9.61 -0.55 -1.58 7.0
10.46 -0.59 -1.57 8.0
11.41 -0.63 -1.55 9.0
7.5 -0.46 -1.63 7.0
8.01 -0.48 -1.62 7.0
8.57 -0.51 -1.6 7.0
9.25 -0.54 -1.59 7.0
10.03 -0.58 -1.58 8.0
10.94 -0.62 -1.56 8.0
7.27 -0.45 -1.64 6.0
7.76 -0.47 -1.63 7.0
8.29 -0.5 -1.61 7.0
8.91 -0.53 -1.6 8.0
9.64 -0.56 -1.58 8.0
10.49 -0.6 -1.57 8.0
7.07 -0.44 -1.64 6.0
7.53 -0.47 -1.63 7.0
8.04 -0.49 -1.62 7.0
8.6 -0.52 -1.6 8.0
9.27 -0.55 -1.59 9.0
10.05 -0.59 -1.57 8.0
6.88 -0.44 -1.65 6.0
7.31 -0.46 -1.64 7.0
7.78 -0.48 -1.62 7.0
8.33 -0.51 -1.61 7.0
8.95 -0.54 -1.6 8.0
9.67 -0.57 -1.58 8.0
6.68 -0.43 -1.65 6.0
7.09 -0.45 -1.64 7.0
7.56 -0.47 -1.63 7.0
8.07 -0.5 -1.62 7.0
8.65 -0.52 -1.6 8.0
9.31 -0.56 -1.59 8.0
6.5 -0.43 -1.66 7.0
6.88 -0.44 -1.64 6.0
7.34 -0.47 -1.64 7.0
7.82 -0.49 -1.62 7.0
8.36 -0.51 -1.61 7.0
8.98 -0.54 -1.59 8.0
6.33 -0.42 -1.66 6.0
6.7 -0.44 -1.65 6.0
7.12 -0.46 -1.64 6.0
7.59 -0.48 -1.63 7.0
8.1 -0.5 -1.62 7.0
8.67 -0.53 -1.6 9.0
6.18 -0.42 -1.67 6.0
6.54 -0.43 -1.66 7.0
6.92 -0.45 -1.65 6.0
7.37 -0.47 -1.64 7.0
7.85 -0.49 -1.62 7.0
8.39 -0.51 -1.61 7.0
6.02 -0.41 -1.67 6.0
6.36 -0.42 -1.66 6.0
6.74 -0.44 -1.65 6.0
7.15 -0.46 -1.64 7.0
7.62 -0.48 -1.63 7.0
8.12 -0.5 -1.61 8.0
5.88 -0.4 -1.68 6.0
6.2 -0.41 -1.67 6.0
6.55 -0.43 -1.66 6.0
6.94 -0.45 -1.64 6.0
7.4 -0.47 -1.64 7.0
7.87 -0.49 -1.62 7.0
5.74 -0.39 -1.68 5.0
6.04 -0.41 -1.67 6.0
6.39 -0.42 -1.66 6.0
6.76 -0.43 -1.65 6.0
7.17 -0.45 -1.64 6.0
7.64 -0.47 -1.63 7.0
5.58 -0.39 -1.68 5.0
5.89 -0.4 -1.67 6.0
6.22 -0.41 -1.67 6.0
6.58 -0.43 -1.66 6.0
6.98 -0.44 -1.65 7.0
7.42 -0.46 -1.63 6.0
5.48 -0.38 -1.69 5.0
5.77 -0.39 -1.68 6.0
6.06 -0.4 -1.67 6.0
6.42 -0.41 -1.66 6.0
6.79 -0.43 -1.65 6.0
7.2 -0.44 -1.64 6.0
5.3 -0.37 -1.68 7.0
5.63 -0.38 -1.68 6.0
5.93 -0.39 -1.68 6.0
6.24 -0.4 -1.66 6.0
6.6 -0.41 -1.65 6.0
7.0 -0.43 -1.64 6.0
5.18 -0.36 -1.68 6.0
5.47 -0.37 -1.68 5.0
5.8 -0.38 -1.68 6.0
6.1 -0.39 -1.67 6.0
6.45 -0.4 -1.66 6.0
6.81 -0.42 -1.65 6.0
5.06 -0.35 -1.68 6.0
5.38 -0.36 -1.7 5.0
5.67 -0.37 -1.69 6.0
5.95 -0.38 -1.67 6.0
6.28 -0.39 -1.66 6.0
6.65 -0.4 -1.66 7.0
4.96 -0.34 -1.68 7.0
5.2 -0.35 -1.68 7.0
5.46 -0.36 -1.67 6.0
5.78 -0.37 -1.67 6.0
6.14 -0.38 -1.67 6.0
6.48 -0.39 -1.66 6.0
4.85 -0.33 -1.69 7.0
5.08 -0.34 -1.68 6.0
5.34 -0.35 -1.67 6.0
5.68 -0.36 -1.68 5.0
5.98 -0.37 -1.67 6.0
6.32 -0.38 -1.66 6.0
4.74 -0.32 -1.69 6.0
4.98 -0.33 -1.68 7.0
5.22 -0.34 -1.67 6.0
5.55 -0.35 -1.69 5.0
5.85 -0.36 -1.68 6.0
6.18 -0.37 -1.67 6.0
4.63 -0.31 -1.68 6.0
4.87 -0.32 -1.69 6.0
5.12 -0.33 -1.68 6.0
5.37 -0.33 -1.67 6.0
5.72 -0.34 -1.68 6.0
5.97 -0.35 -1.66 7.0
4.54 -0.31 -1.69 6.0
4.77 -0.31 -1.69 6.0
5.01 -0.32 -1.68 7.0
5.31 -0.32 -1.69 5.0
5.6 -0.33 -1.69 6.0
5.88 -0.34 -1.68 6.0
4.45 -0.29 -1.69 6.0
4.65 -0.3 -1.68 6.0
4.92 -0.31 -1.69 7.0
5.15 -0.31 -1.68 6.0
5.42 -0.32 -1.67 6.0
5.71 -0.32 -1.67 7.0
4.34 -0.28 -1.68 6.0
4.57 -0.29 -1.69 7.0
4.8 -0.29 -1.69 6.0
5.04 -0.3 -1.68 7.0
5.28 -0.3 -1.67 6.0
5.57 -0.31 -1.67 6.0
4.27 -0.28 -1.69 5.0
4.48 -0.28 -1.69 7.0
4.69 -0.28 -1.68 6.0
4.95 -0.29 -1.69 7.0
5.18 -0.29 -1.68 6.0
5.44 -0.29 -1.67 6.0
4.18 -0.27 -1.69 6.0
4.37 -0.27 -1.68 5.0
4.61 -0.27 -1.69 7.0
4.83 -0.28 -1.68 8.0
5.07 -0.28 -1.68 6.0
5.32 -0.28 -1.67 6.0
4.09 -0.26 -1.69 5.0
4.29 -0.26 -1.69 6.0
4.52 -0.26 -1.69 7.0
4.73 -0.26 -1.68 6.0
4.98 -0.27 -1.68 7.0
5.22 -0.27 -1.68 6.0
4.01 -0.24 -1.69 5.0
4.2 -0.25 -1.69 5.0
4.42 -0.25 -1.69 5.0
4.64 -0.25 -1.69 7.0
4.87 -0.25 -1.68 9.0
5.11 -0.25 -1.68 6.0
3.97 -0.24 -1.7 6.0
4.12 -0.23 -1.68 7.0
4.32 -0.24 -1.69 6.0
4.55 -0.24 -1.69 7.0
4.77 -0.24 -1.68 7.0
5.01 -0.24 -1.68 7.0
3.86 -0.22 -1.69 5.0
4.04 -0.22 -1.69 8.0
4.24 -0.22 -1.68 5.0
4.47 -0.23 -1.69 6.0
4.7 -0.23 -1.69 8.0
4.91 -0.23 -1.68 7.0
1.97 -0.11 -0.88 0.0
3.97 -0.21 -1.69 6.0
4.17 -0.21 -1.69 5.0
4.36 -0.21 -1.68 5.0
4.58 -0.21 -1.69 5.0
4.82 -0.21 -1.68 8.0
1.79 -0.1 -0.81 0.0
3.9 -0.2 -1.69 6.0
4.1 -0.2 -1.7 6.0
4.27 -0.2 -1.68 6.0
4.49 -0.2 -1.68 8.0
4.72 -0.2 -1.68 7.0
1.68 -0.09 -0.78 0.0
4.02 -0.19 -1.69 5.0
4.21 -0.19 -1.69 6.0
4.41 -0.19 -1.69 6.0
4.64 -0.19 -1.68 7.0
1.54 -0.08 -0.73 0.0
1.89 -0.09 -0.85 2.0
3.94 -0.18 -1.69 6.0
4.13 -0.18 -1.69 6.0
4.32 -0.18 -1.68 6.0
4.54 -0.17 -1.68 8.0
1.53 -0.07 -0.73 0.0
1.79 -0.08 -0.82 1.0
3.88 -0.17 -1.69 6.0
4.04 -0.17 -1.68 6.0
4.25 -0.16 -1.68 7.0
4.46 -0.16 -1.68 8.0
1.44 -0.07 -0.7 0.0
1.6 -0.07 -0.74 0.0
1.99 -0.08 -0.88 2.0
3.98 -0.15 -1.69 5.0
4.17 -0.15 -1.68 7.0
4.38 -0.15 -1.68 6.0
1.44 -0.06 -0.71 0.0
1.85 -0.07 -0.84 1.0
3.93 -0.14 -1.69 6.0
4.09 -0.14 -1.68 7.0
4.3 -0.13 -1.68 5.0
1.4 -0.06 -0.7 0.0
1.6 -0.06 -0.77 0.0
1.77 -0.06 -0.81 1.0
3.85 -0.13 -1.69 5.0
4.04 -0.12 -1.69 6.0
4.22 -0.12 -1.68 7.0
1.28 -0.05 -0.65 0.0
1.58 -0.06 -0.77 0.0
1.73 -0.06 -0.81 2.0
1.92 -0.06 -0.86 2.0
3.96 -0.11 -1.69 6.0
4.14 -0.11 -1.68 7.0
1.27 -0.05 -0.66 0.0
1.52 -0.05 -0.76 0.0
1.68 -0.05 -0.8 2.0
1.83 -0.05 -0.83 1.0
3.9 -0.1 -1.69 6.0
4.07 -0.09 -1.68 7.0
1.24 -0.04 -0.65 0.0
1.55 -0.05 -0.78 0.0
1.62 -0.04 -0.78 1.0
1.76 -0.04 -0.81 1.0
4.07 -0.09 -1.79 0.0
4.02 -0.08 -1.68 7.0
1.28 -0.04 -0.69 0.0
1.51 -0.04 -0.77 0.0
1.58 -0.04 -0.77 1.0
1.72 -0.04 -0.8 3.0
1.92 -0.04 -0.86 2.0
3.95 -0.07 -1.68 7.0
1.29 -0.03 -0.7 0.0
1.22 -0.03 -0.63 0.0
1.54 -0.03 -0.76 1.0
1.84 -0.03 -0.83 2.0
3.89 -0.05 -1.68 7.0
1.31 -0.03 -0.72 0.0
1.2 -0.02 -0.63 0.0
1.51 -0.03 -0.76 1.0
1.63 -0.03 -0.78 1.0
1.78 -0.02 -0.82 2.0
3.82 -0.04 -1.67 6.0
1.28 -0.03 -0.72 0.0
1.28 -0.02 -0.68 0.0
1.43 -0.02 -0.73 0.0
1.58 -0.02 -0.77 1.0
1.72 -0.02 -0.8 1.0
1.94 -0.01 -0.86 0.0
1.17 -0.02 -0.67 0.0
1.3 -0.02 -0.7 0.0
1.43 -0.01 -0.74 0.0
1.55 -0.01 -0.77 1.0
1.67 -0.01 -0.79 1.0
1.84 -0.01 -0.83 0.0
1.17 -0.01 -0.67 0.0
1.27 -0.01 -0.7 0.0
1.4 -0.01 -0.74 0.0
1.45 -0.01 -0.73 0.0
1.64 0.0 -0.79 1.0
1.79 0.0 -0.82 0.0
1.18 -0.01 -0.69 0.0
1.25 -0.01 -0.7 0.0
1.21 0.0 -0.64 0.0
1.47 0.0 -0.75 0.0
1.59 0.0 -0.77 1.0
1.77 0.01 -0.82 0.0
1.11 0.0 -0.66 0.0
1.22 0.0 -0.69 0.0
1.31 0.0 -0.71 0.0
1.44 0.0 -0.74 0.0
1.56 0.01 -0.77 1.0
1.74 0.01 -0.82 0.0
1.14 0.0 -0.68 0.0
1.17 0.0 -0.67 0.0
1.29 0.0 -0.71 0.0
1.39 0.01 -0.73 0.0
1.53 0.01 -0.76 1.0
1.64 0.02 -0.78 0.0
1.25 0.0 -0.75 0.0
1.17 0.01 -0.68 0.0
1.28 0.01 -0.71 0.0
1.37 0.01 -0.72 0.0
1.46 0.02 -0.74 0.0
1.67 0.03 -0.81 0.0
1.17 0.01 -0.69 0.0
1.27 0.02 -0.71 0.0
1.28 0.02 -0.68 0.0
1.43 0.03 -0.73 0.0
1.64 0.03 -0.8 0.0
1.26 0.02 -0.75 0.0
1.2 0.02 -0.68 0.0
1.3 0.03 -0.71 0.0
1.44 0.03 -0.74 0.0
1.58 0.04 -0.78 0.0
1.27 0.03 -0.77 0.0
1.18 0.03 -0.68 0.0
1.3 0.03 -0.71 0.0
1.39 0.04 -0.73 0.0
1.52 0.04 -0.76 0.0
1.2 0.03 -0.69 0.0
1.31 0.04 -0.73 0.0
1.39 0.04 -0.74 0.0
1.31 0.04 -0.66 0.0
1.2 0.04 -0.7 0.0
1.29 0.04 -0.73 0.0
1.24 0.04 -0.66 0.0
1.27 0.05 -0.65 0.0
1.29 0.05 -0.77 0.0
1.19 0.05 -0.67 0.0
1.31 0.05 -0.71 0.0
1.26 0.05 -0.65 0.0
1.19 0.05 -0.71 0.0
1.18 0.05 -0.68 0.0
1.3 0.06 -0.71 0.0
1.25 0.06 -0.65 0.0
1.2 0.06 -0.69 0.0
1.33 0.07 -0.73 0.0
1.23 0.06 -0.65 0.0
1.21 0.06 -0.7 0.0
1.33 0.07 -0.74 0.0
1.19 0.07 -0.63 0.0
1.2 0.07 -0.7 0.0
1.32 0.08 -0.74 0.0
1.23 0.08 -0.66 0.0
1.25 0.08 -0.74 0.0
1.23 0.08 -0.7 0.0
1.31 0.09 -0.71 0.0
1.21 0.08 -0.73 0.0
1.2 0.08 -0.69 0.0
1.3 0.09 -0.71 0.0
1.21 0.09 -0.7 0.0
1.3 0.1 -0.72 0.0
1.2 0.1 -0.7 0.0
1.31 0.11 -0.73 0.0
1.22 0.11 -0.72 0.0
1.32 0.12 -0.74 0.0
1.21 0.11 -0.71 0.0
1.31 0.12 -0.74 0.0
1.21 0.12 -0.72 0.0
1.19 0.12 -0.68 0.0
1.3 0.14 -0.77 0.0
1.16 0.12 -0.66 0.0
1.28 0.14 -0.77 0.0
1.18 0.13 -0.68 0.0
1.14 0.13 -0.69 0.0
1.18 0.14 -0.68 0.0
1.18 0.14 -0.72 0.0
1.19 0.14 -0.69 0.0
1.22 0.16 -0.75 0.0
1.19 0.15 -0.69 0.0
1.22 0.16 -0.75 0.0
1.19 0.16 -0.69 0.0
1.18 0.17 -0.69 0.0
1.19 0.17 -0.7 0.0
1.19 0.18 -0.7 0.0
1.19 0.19 -0.7 0.0
1.19 0.19 -0.7 0.0
1.18 0.2 -0.7 0.0
1.16 0.2 -0.69 0.0
1.17 0.21 -0.69 0.0
1.16 0.22 -0.69 0.0
1.19 0.23 -0.71 0.0
1.19 0.23 -0.71 0.0
1.18 0.24 -0.7 0.0
1.19 0.25 -0.71 0.0
1.18 0.26 -0.73 0.0
1.23 0.26 -0.73 0.0
1.16 0.26 -0.72 0.0
1.22 0.27 -0.72 0.0
1.14 0.26 -0.71 0.0
1.18 0.27 -0.7 0.0
1.24 0.29 -0.76 0.0
1.15 0.27 -0.68 0.0
1.27 0.31 -0.78 0.0
1.12 0.27 -0.66 0.0
1.31 0.32 -0.81 0.0
1.15 0.28 -0.67 0.0
1.26 0.32 -0.77 0.0
1.2 0.3 -0.7 0.0
1.25 0.32 -0.76 0.0
1.21 0.3 -0.7 0.0
1.25 0.32 -0.76 0.0
1.27 0.33 -0.73 0.0
1.23 0.33 -0.74 0.0
1.25 0.33 -0.72 0.0
1.23 0.33 -0.74 0.0
1.19 0.32 -0.68 0.0
1.24 0.35 -0.77 0.0
1.24 0.34 -0.74 0.0
1.13 0.31 -0.64 0.0
1.21 0.34 -0.75 0.0
1.25 0.35 -0.74 0.0
1.34 0.37 -0.75 0.0
1.23 0.35 -0.76 0.0
1.22 0.35 -0.72 0.0
1.16 0.32 -0.65 0.0
1.2 0.35 -0.74 0.0
1.25 0.36 -0.73 0.0
1.37 0.39 -0.76 0.0
1.17 0.35 -0.71 0.0
1.23 0.36 -0.71 0.0
1.39 0.4 -0.76 0.0
1.14 0.35 -0.72 0.0
1.21 0.36 -0.73 0.0
1.3 0.38 -0.74 0.0
1.32 0.38 -0.72 0.0
1.26 0.39 -0.79 0.0
1.25 0.38 -0.75 0.0
1.26 0.38 -0.72 0.0
1.34 0.4 -0.73 0.0
1.21 0.38 -0.75 0.0
1.2 0.37 -0.71 0.0
1.3 0.39 -0.73 0.0
1.38 0.41 -0.74 0.0
1.23 0.39 -0.76 0.0
1.23 0.38 -0.72 0.0
1.35 0.41 -0.75 0.0
1.41 0.43 -0.75 0.0
1.25 0.4 -0.76 0.0
1.3 0.41 -0.75 0.0
1.35 0.42 -0.75 0.0
1.42 0.43 -0.75 0.0
1.21 0.4 -0.77 0.0
1.15 0.37 -0.69 0.0
1.28 0.41 -0.74 0.0
1.39 0.43 -0.76 0.0
1.66 0.51 -0.87 0.0
1.26 0.42 -0.79 0.0
1.25 0.41 -0.74 0.0
1.29 0.41 -0.73 0.0
1.39 0.44 -0.75 0.0
1.68 0.52 -0.87 0.0
1.26 0.42 -0.75 0.0
1.34 0.43 -0.76 0.0
1.43 0.45 -0.76 0.0
1.72 0.54 -0.87 0.0
1.16 0.4 -0.75 0.0
1.18 0.4 -0.73 0.0
1.33 0.44 -0.78 0.0
1.38 0.45 -0.77 0.0
1.64 0.53 -0.87 0.0
1.86 0.59 -0.94 0.0
1.17 0.41 -0.75 0.0
1.24 0.42 -0.76 0.0
1.26 0.42 -0.73 0.0
1.39 0.45 -0.76 0.0
1.66 0.54 -0.87 1.0
1.78 0.57 -0.89 0.0
1.19 0.41 -0.75 0.0
1.18 0.4 -0.71 0.0
1.28 0.43 -0.73 0.0
1.47 0.49 -0.8 0.0
1.7 0.55 -0.88 1.0
3.45 1.1 -1.69 5.0
1.21 0.42 -0.75 0.0
1.14 0.39 -0.68 0.0
1.35 0.46 -0.76 0.0
1.56 0.52 -0.83 0.0
1.78 0.58 -0.91 0.0
3.5 1.13 -1.7 6.0
1.22 0.43 -0.75 0.0
1.33 0.46 -0.77 0.0
1.37 0.47 -0.76 0.0
1.63 0.54 -0.86 1.0
3.42 1.12 -1.72 0.0
3.57 1.16 -1.7 5.0
1.17 0.41 -0.71 0.0
1.34 0.47 -0.78 0.0
1.45 0.49 -0.8 0.0
1.67 0.56 -0.87 0.0
3.43 1.13 -1.7 4.0
3.58 1.17 -1.69 6.0
1.15 0.41 -0.69 0.0
1.38 0.48 -0.79 0.0
1.57 0.54 -0.85 0.0
1.76 0.59 -0.9 0.0
3.47 1.15 -1.7 4.0
3.62 1.18 -1.68 6.0
1.2 0.43 -0.7 0.0
1.4 0.49 -0.79 0.0
1.61 0.56 -0.86 1.0
3.42 1.16 -1.73 2.0
3.55 1.18 -1.71 5.0
3.66 1.2 -1.68 5.0
1.24 0.44 -0.72 0.0
1.45 0.51 -0.8 0.0
1.33 0.46 -0.7 0.0
3.4 1.15 -1.7 5.0
3.56 1.19 -1.69 5.0
3.72 1.23 -1.68 6.0
1.28 0.46 -0.73 0.0
1.38 0.48 -0.75 0.0
1.75 0.61 -0.91 0.0
3.45 1.17 -1.7 5.0
3.62 1.21 -1.69 5.0
3.77 1.25 -1.68 6.0
1.3 0.47 -0.73 0.0
1.59 0.56 -0.85 0.0
3.31 1.15 -1.69 3.0
3.49 1.19 -1.7 4.0
3.67 1.23 -1.69 5.0
3.83 1.27 -1.68 6.0
1.37 0.49 -0.76 0.0
1.72 0.6 -0.91 0.0
3.38 1.17 -1.7 4.0
3.54 1.21 -1.69 5.0
3.72 1.25 -1.69 5.0
3.91 1.3 -1.68 6.0
1.37 0.49 -0.75 0.0
1.78 0.63 -0.93 0.0
3.43 1.19 -1.7 4.0
3.59 1.23 -1.69 4.0
3.78 1.27 -1.69 5.0
3.98 1.32 -1.68 6.0
1.6 0.57 -0.86 0.0
3.3 1.16 -1.69 4.0
3.47 1.2 -1.69 4.0
3.64 1.25 -1.69 6.0
3.83 1.29 -1.68 6.0
4.02 1.34 -1.67 7.0
1.63 0.58 -0.86 0.0
3.36 1.18 -1.69 4.0
3.52 1.22 -1.69 4.0
3.71 1.27 -1.69 5.0
3.9 1.32 -1.68 5.0
4.11 1.37 -1.68 6.0
3.21 1.15 -1.67 3.0
3.41 1.2 -1.69 4.0
3.59 1.24 -1.69 5.0
3.77 1.29 -1.69 5.0
3.96 1.33 -1.68 6.0
4.17 1.39 -1.68 8.0
3.3 1.18 -1.69 4.0
3.47 1.22 -1.69 5.0
3.64 1.26 -1.69 4.0
3.83 1.31 -1.69 5.0
4.03 1.36 -1.68 6.0
4.25 1.41 -1.68 7.0
3.35 1.2 -1.69 4.0
3.53 1.24 -1.69 4.0
3.71 1.28 -1.69 4.0
3.9 1.33 -1.68 5.0
4.09 1.38 -1.68 7.0
4.32 1.43 -1.67 7.0
3.41 1.21 -1.69 4.0
3.58 1.25 -1.68 4.0
3.77 1.3 -1.69 5.0
3.96 1.35 -1.68 6.0
4.18 1.4 -1.68 6.0
4.39 1.46 -1.67 6.0
3.47 1.23 -1.69 4.0
3.64 1.27 -1.68 4.0
3.84 1.32 -1.68 5.0
4.03 1.37 -1.68 6.0
4.25 1.42 -1.68 7.0
4.46 1.48 -1.67 8.0
3.54 1.25 -1.69 4.0
3.71 1.29 -1.68 5.0
3.9 1.34 -1.68 5.0
4.13 1.4 -1.69 7.0
4.32 1.44 -1.67 6.0
4.55 1.5 -1.67 7.0
3.59 1.26 -1.69 5.0
3.77 1.31 -1.68 4.0
3.98 1.36 -1.68 5.0
4.18 1.41 -1.68 6.0
4.4 1.47 -1.67 6.0
4.65 1.53 -1.67 7.0
3.65 1.28 -1.68 4.0
3.83 1.32 -1.68 4.0
4.06 1.38 -1.68 6.0
4.26 1.43 -1.68 6.0
4.48 1.49 -1.67 7.0
4.73 1.55 -1.66 8.0
3.72 1.29 -1.68 5.0
3.91 1.34 -1.68 5.0
4.12 1.4 -1.68 7.0
4.33 1.45 -1.67 6.0
4.58 1.51 -1.67 7.0
4.83 1.58 -1.66 9.0
3.78 1.31 -1.68 5.0
3.98 1.36 -1.68 5.0
4.2 1.41 -1.68 5.0
4.43 1.47 -1.67 6.0
4.67 1.54 -1.67 7.0
4.91 1.6 -1.65 8.0
3.85 1.33 -1.68 4.0
4.06 1.38 -1.68 6.0
4.28 1.43 -1.67 5.0
4.51 1.49 -1.67 7.0
4.76 1.56 -1.66 7.0
5.04 1.63 -1.66 9.0
3.93 1.34 -1.68 5.0
4.13 1.4 -1.68 8.0
4.36 1.45 -1.67 5.0
4.6 1.52 -1.67 6.0
4.85 1.58 -1.66 7.0
5.13 1.65 -1.65 9.0
4.01 1.36 -1.68 5.0
4.21 1.41 -1.67 6.0
4.45 1.47 -1.67 6.0
4.68 1.53 -1.66 7.0
4.96 1.61 -1.66 8.0
5.23 1.68 -1.65 9.0
4.08 1.38 -1.68 5.0
4.3 1.43 -1.67 6.0
4.54 1.49 -1.67 6.0
4.78 1.55 -1.66 8.0
5.06 1.63 -1.66 8.0
5.36 1.71 -1.65 9.0
4.15 1.39 -1.67 5.0
4.38 1.45 -1.67 5.0
4.63 1.51 -1.67 6.0
4.89 1.58 -1.66 7.0
5.16 1.65 -1.65 8.0
5.47 1.73 -1.65 10.0
4.24 1.41 -1.67 5.0
4.47 1.47 -1.67 6.0
4.72 1.53 -1.66 7.0
4.99 1.6 -1.66 8.0
5.28 1.68 -1.65 9.0
5.58 1.75 -1.64 10.0
4.32 1.43 -1.67 5.0
4.56 1.48 -1.67 7.0
4.82 1.55 -1.66 8.0
5.08 1.62 -1.65 8.0
5.4 1.7 -1.65 9.0
5.72 1.78 -1.64 10.0
4.41 1.44 -1.67 5.0
4.65 1.5 -1.66 6.0
4.92 1.57 -1.66 7.0
5.2 1.64 -1.65 8.0
5.53 1.73 -1.65 9.0
5.85 1.81 -1.63 11.0
4.5 1.46 -1.67 7.0
4.75 1.52 -1.66 7.0
5.02 1.59 -1.66 7.0
5.32 1.67 -1.65 8.0
5.63 1.75 -1.64 9.0
5.99 1.84 -1.63 11.0
4.59 1.47 -1.67 6.0
4.85 1.54 -1.66 8.0
5.13 1.61 -1.65 7.0
5.44 1.69 -1.65 9.0
5.78 1.78 -1.64 11.0
6.13 1.87 -1.62 12.0
4.69 1.49 -1.66 6.0
4.95 1.55 -1.66 7.0
5.25 1.63 -1.65 8.0
5.56 1.71 -1.65 8.0
5.91 1.8 -1.64 10.0
6.29 1.9 -1.62 13.0
4.79 1.5 -1.66 6.0
5.07 1.57 -1.66 8.0
5.36 1.65 -1.65 8.0
5.69 1.73 -1.64 9.0
6.05 1.82 -1.63 11.0
6.45 1.93 -1.62 13.0
4.89 1.52 -1.66 6.0
5.16 1.59 -1.65 7.0
5.5 1.67 -1.65 8.0
5.82 1.75 -1.64 9.0
6.2 1.85 -1.63 11.0
6.62 1.96 -1.62 14.0
5.0 1.54 -1.66 6.0
5.28 1.61 -1.65 8.0
5.61 1.69 -1.64 8.0
5.96 1.78 -1.64 10.0
6.35 1.88 -1.62 11.0
6.79 1.99 -1.61 13.0
5.1 1.55 -1.65 7.0
5.4 1.62 -1.65 8.0
5.74 1.71 -1.64 8.0
6.12 1.8 -1.63 10.0
6.52 1.9 -1.62 11.0
6.97 2.02 -1.61 14.0
5.28 1.58 -1.67 5.0
5.54 1.64 -1.65 8.0
5.88 1.73 -1.64 9.0
6.26 1.82 -1.63 11.0
6.68 1.93 -1.62 12.0
7.16 2.05 -1.6 13.0
5.33 1.58 -1.65 8.0
5.65 1.66 -1.64 9.0
6.01 1.75 -1.63 10.0
6.41 1.84 -1.62 11.0
6.86 1.96 -1.61 12.0
7.36 2.08 -1.6 14.0
5.45 1.59 -1.65 8.0
5.78 1.67 -1.64 8.0
6.16 1.77 -1.63 10.0
6.57 1.87 -1.62 11.0
7.05 1.99 -1.61 14.0
7.6 2.12 -1.6 14.0
5.59 1.61 -1.65 8.0
5.92 1.69 -1.64 8.0
6.32 1.79 -1.63 9.0
6.76 1.89 -1.62 12.0
7.23 2.01 -1.6 14.0
7.81 2.15 -1.59 14.0
5.7 1.62 -1.64 8.0
6.07 1.71 -1.64 9.0
6.47 1.81 -1.63 10.0
6.93 1.92 -1.61 11.0
7.45 2.05 -1.6 14.0
8.04 2.19 -1.59 15.0
5.9 1.65 -1.66 7.0
6.26 1.74 -1.65 7.0
6.63 1.82 -1.62 10.0
7.11 1.94 -1.61 12.0
7.68 2.08 -1.6 13.0
8.28 2.22 -1.58 15.0
5.96 1.64 -1.63 7.0
6.37 1.74 -1.63 9.0
6.84 1.85 -1.63 8.0
7.32 1.97 -1.61 11.0
7.9 2.11 -1.6 12.0
8.58 2.27 -1.59 14.0
6.17 1.68 -1.65 7.0
6.59 1.77 -1.64 8.0
6.99 1.86 -1.62 10.0
7.52 1.99 -1.6 12.0
8.12 2.13 -1.59 13.0
8.85 2.31 -1.58 14.0
6.32 1.69 -1.65 8.0
6.73 1.78 -1.63 8.0
7.18 1.89 -1.61 11.0
7.76 2.02 -1.61 11.0
8.39 2.17 -1.59 12.0
9.12 2.34 -1.57 14.0
6.45 1.69 -1.64 7.0
6.89 1.79 -1.63 9.0
7.39 1.91 -1.61 9.0
7.98 2.05 -1.6 12.0
8.65 2.2 -1.59 13.0
9.41 2.38 -1.57 14.0
6.59 1.7 -1.63 7.0
7.06 1.81 -1.62 8.0
7.62 1.93 -1.61 11.0
8.2 2.07 -1.6 12.0
8.92 2.23 -1.58 14.0
9.73 2.42 -1.56 15.0
6.75 1.71 -1.63 8.0
7.24 1.82 -1.62 9.0
7.8 1.95 -1.61 11.0
8.45 2.09 -1.59 13.0
9.19 2.26 -1.57 13.0
10.08 2.46 -1.56 17.0
6.93 1.73 -1.63 8.0
7.43 1.84 -1.61 9.0
8.03 1.97 -1.6 11.0
8.7 2.12 -1.59 13.0
9.5 2.3 -1.57 14.0
10.42 2.5 -1.55 18.0
7.1 1.74 -1.62 8.0
7.63 1.85 -1.61 10.0
8.26 1.99 -1.6 11.0
8.96 2.14 -1.58 12.0
9.8 2.32 -1.56 15.0
10.79 2.54 -1.54 18.0
7.28 1.75 -1.62 8.0
7.82 1.86 -1.6 9.0
8.48 2.0 -1.59 11.0
9.26 2.17 -1.58 13.0
10.16 2.37 -1.56 15.0
11.18 2.58 -1.53 15.0
7.46 1.75 -1.61 8.0
8.06 1.88 -1.6 11.0
8.73 2.02 -1.58 11.0
9.55 2.19 -1.57 14.0
10.49 2.39 -1.55 18.0
11.68 2.65 -1.53 11.0
7.65 1.76 -1.61 9.0
8.26 1.88 -1.59 10.0
9.02 2.04 -1.58 12.0
9.87 2.22 -1.57 15.0
10.85 2.42 -1.54 17.0
12.04 2.67 -1.51 16.0
7.86 1.77 -1.6 8.0
8.51 1.9 -1.59 11.0
9.31 2.06 -1.58 12.0
10.21 2.25 -1.56 15.0
11.23 2.46 -1.53 16.0
12.49 2.71 -1.49 15.0
8.06 1.78 -1.6 8.0
8.75 1.91 -1.58 9.0
9.6 2.08 -1.57 13.0
10.54 2.27 -1.55 15.0
11.68 2.5 -1.52 11.0
13.01 2.77 -1.48 14.0
8.29 1.78 -1.6 8.0
9.01 1.92 -1.58 10.0
9.9 2.1 -1.57 11.0
10.91 2.3 -1.55 18.0
12.16 2.54 -1.52 16.0
13.54 2.81 -1.47 17.0
8.5 1.79 -1.59 8.0
9.29 1.94 -1.58 10.0
10.22 2.11 -1.56 13.0
11.27 2.32 -1.54 17.0
12.55 2.56 -1.5 16.0
14.1 2.86 -1.46 13.0
8.76 1.79 -1.59 8.0
9.6 1.95 -1.58 11.0
10.57 2.13 -1.56 13.0
11.67 2.34 -1.53 15.0
13.04 2.6 -1.49 17.0
14.88 2.95 -1.46 15.0
9.0 1.8 -1.58 8.0
9.88 1.96 -1.57 11.0
10.93 2.15 -1.55 14.0
12.17 2.38 -1.53 9.0
13.54 2.63 -1.48 15.0
15.43 2.98 -1.43 17.0
9.27 1.8 -1.58 8.0
10.19 1.97 -1.57 9.0
11.27 2.16 -1.54 15.0
12.62 2.4 -1.52 15.0
14.12 2.67 -1.47 15.0
16.08 3.02 -1.41 9.0
9.56 1.81 -1.58 8.0
10.5 1.97 -1.56 10.0
11.65 2.17 -1.53 16.0
13.01 2.41 -1.5 15.0
14.78 2.72 -1.46 10.0
16.95 3.1 -1.4 10.0
9.85 1.81 -1.57 8.0
10.86 1.98 -1.55 11.0
12.07 2.19 -1.53 14.0
13.52 2.43 -1.49 15.0
15.46 2.76 -1.45 16.0
17.78 3.16 -1.38 11.0
10.15 1.81 -1.57 8.0
11.23 1.99 -1.55 10.0
12.56 2.21 -1.53 9.0
14.05 2.45 -1.48 13.0
16.04 2.79 -1.42 20.0
18.63 3.21 -1.35 13.0
10.45 1.81 -1.57 8.0
11.59 1.99 -1.54 11.0
13.03 2.22 -1.52 12.0
14.65 2.48 -1.47 14.0
16.71 2.81 -1.4 10.0
19.6 3.28 -1.32 14.0
10.78 1.81 -1.56 7.0
11.95 1.99 -1.53 10.0
13.42 2.22 -1.5 13.0
15.32 2.51 -1.46 9.0
17.61 2.87 -1.39 11.0
20.58 3.33 -1.29 15.0
11.13 1.81 -1.56 7.0
12.38 1.99 -1.53 11.0
13.91 2.22 -1.49 12.0
15.98 2.54 -1.45 15.0
18.48 2.91 -1.37 12.0
21.79 3.41 -1.26 18.0
11.49 1.8 -1.55 8.0
12.8 1.99 -1.52 7.0
14.46 2.23 -1.48 10.0
16.55 2.54 -1.42 13.0
19.3 2.94 -1.34 14.0
22.93 3.47 -1.23 19.0
11.9 1.8 -1.55 9.0
13.35 2.0 -1.52 6.0
15.09 2.24 -1.47 10.0
17.28 2.55 -1.4 11.0
20.3 2.98 -1.32 15.0
24.17 3.52 -1.18 17.0
12.21 1.78 -1.54 8.0
13.73 1.98 -1.5 9.0
15.64 2.24 -1.45 9.0
18.2 2.59 -1.4 12.0
21.28 3.0 -1.29 17.0
26.08 3.66 -1.16 17.0
12.58 1.76 -1.53 8.0
14.22 1.97 -1.49 7.0
16.41 2.26 -1.45 9.0
19.07 2.6 -1.38 13.0
22.47 3.05 -1.26 19.0
27.53 3.71 -1.1 18.0
13.04 1.75 -1.52 7.0
14.77 1.96 -1.48 8.0
16.98 2.24 -1.43 10.0
19.81 2.59 -1.34 14.0
23.57 3.06 -1.22 21.0
28.99 3.74 -1.03 13.0
13.49 1.73 -1.52 6.0
15.29 1.95 -1.47 8.0
17.74 2.24 -1.42 11.0
20.83 2.61 -1.32 16.0
24.95 3.1 -1.18 9.0
30.96 3.82 -0.97 1.0
14.01 1.72 -1.52 6.0
15.86 1.93 -1.46 9.0
18.55 2.23 -1.4 12.0
21.78 2.6 -1.29 17.0
26.66 3.16 -1.15 16.0
14.38 1.68 -1.5 7.0
16.56 1.92 -1.45 8.0
19.32 2.22 -1.38 8.0
22.83 2.6 -1.26 19.0
28.2 3.18 -1.1 13.0
63.3 7.09 -1.45 0.0
14.88 1.65 -1.49 8.0
17.21 1.89 -1.44 8.0
20.15 2.19 -1.36 9.0
23.92 2.58 -1.22 11.0
29.53 3.16 -1.03 9.0
43.21 4.59 -0.81 18.0
15.41 1.62 -1.48 7.0
17.84 1.86 -1.42 8.0
21.04 2.17 -1.33 11.0
25.18 2.57 -1.18 5.0
30.88 3.12 -0.95 1.0
49.39 4.95 -0.73 15.0
15.97 1.58 -1.47 6.0
18.68 1.83 -1.41 7.0
21.98 2.13 -1.3 8.0
27.13 2.61 -1.17 7.0
49.76 4.7 -0.55 6.0
16.53 1.54 -1.45 5.0
19.48 1.8 -1.4 5.0
22.88 2.09 -1.27 7.0
28.26 2.55 -1.11 7.0
41.79 3.74 -0.97 7.0
17.14 1.5 -1.44 6.0
20.23 1.75 -1.38 4.0
23.99 2.05 -1.24 5.0
29.83 2.52 -1.06 4.0
45.71 3.82 -0.89 80.0
17.91 1.46 -1.44 8.0
21.0 1.69 -1.35 6.0
25.08 1.99 -1.21 3.0
30.53 2.39 -0.97 0.0
46.92 3.63 -0.74 15.0
18.47 1.39 -1.42 8.0
21.77 1.62 -1.32 6.0
26.82 1.97 -1.19 4.0
112.77 7.95 0.45 13.0
19.18 1.33 -1.41 5.0
22.67 1.54 -1.29 7.0
28.11 1.89 -1.15 5.0
106.63 6.87 0.8 150.0
19.94 1.26 -1.39 6.0
23.56 1.46 -1.26 6.0
29.42 1.79 -1.1 5.0
120.22 7.0 1.32 112.0
20.66 1.17 -1.37 7.0
24.64 1.38 -1.24 5.0
30.65 1.68 -1.04 3.0
46.21 2.49 -0.82 2.0
134.09 6.97 1.93 150.0
21.34 1.08 -1.34 6.0
25.65 1.27 -1.2 5.0
22.2 0.99 -1.33 8.0
26.93 1.17 -1.17 4.0
23.03 0.88 -1.3 6.0
28.56 1.06 -1.15 6.0
23.91 0.76 -1.28 5.0
29.56 0.91 -1.1 4.0
24.75 0.63 -1.25 5.0
31.04 0.76 -1.07 3.0
171.21 3.69 2.42 151.0
25.7 0.5 -1.22 4.0
31.34 0.57 -0.98 1.0
26.7 0.35 -1.2 3.0
27.99 0.19 -1.18 3.0
151.98 0.22 5.9 45.0
29.36 0.01 -1.15 4.0
42.2 -0.04 -0.98 2.0
187.27 -0.54 1.72 150.0
150.81 -0.6 3.83 40.0
149.99 -0.75 6.23 52.0
30.33 -0.19 -1.11 5.0
51.84 -0.43 -0.22 40.0
137.69 -1.3 1.63 93.0
114.17 -1.2 3.2 255.0
130.14 -1.51 5.76 27.0
31.69 -0.4 -1.08 5.0
51.29 -0.76 -0.09 64.0
97.96 -1.56 1.41 13.0
120.78 -2.06 3.69 42.0
150.35 -2.74 7.04 30.0
32.05 -0.62 -1.02 1.0
51.28 -1.04 -0.8 9.0
50.83 -1.09 0.03 86.0
97.92 -2.2 1.65 155.0
121.61 -2.88 4.02 38.0
50.53 -1.36 -0.66 27.0
50.36 -1.41 0.15 77.0
50.42 -1.47 0.97 75.0
178.58 -5.42 6.34 33.0
50.07 -1.68 -0.54 72.0
49.92 -1.73 0.27 79.0
50.01 -1.79 1.08 79.0
21.94 -0.81 0.83 2.0
21.64 -0.84 -0.54 54.0
21.53 -0.87 -0.18 32.0
21.53 -0.89 0.16 67.0
49.62 -2.11 1.18 10.0
21.7 -0.95 0.87 6.0
21.74 -0.98 1.23 2.0
21.45 -0.98 -0.49 90.0
21.36 -1.0 -0.14 78.0
21.35 -1.03 0.21 49.0
22.24 -1.09 0.58 2.0
22.23 -1.12 0.94 3.0
21.59 -1.12 1.26 4.0
21.27 -1.11 -0.44 75.0
21.18 -1.13 -0.09 65.0
21.23 -1.16 0.25 9.0
22.22 -1.24 0.62 39.0
22.25 -1.27 0.99 22.0
21.46 -1.26 1.3 4.0
21.1 -1.25 -0.39 72.0
21.02 -1.27 -0.05 60.0
21.09 -1.3 0.29 0.0
61.03 -3.83 1.84 150.0
22.07 -1.41 1.02 17.0
21.33 -1.39 1.34 4.0
20.95 -1.38 -0.35 91.0
20.89 -1.4 -0.01 70.0
21.18 -1.45 0.33 0.0
22.45 -1.56 0.72 17.0
21.81 -1.54 1.05 17.0
21.13 -1.53 1.37 6.0
20.79 -1.51 -0.31 68.0
20.75 -1.53 0.03 74.0
22.14 -1.66 0.39 8.0
22.19 -1.69 0.75 77.0
21.48 -1.67 1.08 18.0
20.93 -1.66 1.39 11.0
20.64 -1.64 -0.27 52.0
20.61 -1.66 0.06 112.0
22.17 -1.81 0.43 1.0
21.96 -1.83 0.78 10.0
20.96 -1.77 1.09 15.0
20.77 -1.78 1.42 48.0
20.63 -1.77 -0.24 117.0
20.62 -1.8 0.1 134.0
21.38 -1.9 0.45 27.0
20.61 -1.85 0.77 27.0
20.62 -1.89 1.11 12.0
20.66 -1.92 1.45 74.0
20.69 -1.92 -0.2 118.0
20.69 -1.95 0.13 110.0
34.48 -3.29 0.78 0.0
21.26 -2.06 0.83 19.0
20.69 -2.03 1.14 12.0
20.76 -2.07 1.49 73.0
20.75 -2.07 -0.17 109.0
20.76 -2.1 0.16 72.0
20.66 -2.11 0.5 13.0
20.4 -2.12 0.82 0.0
20.72 -2.18 1.18 3.0
20.92 -2.23 1.53 74.0
20.81 -2.21 -0.14 98.0
20.82 -2.24 0.19 43.0
21.2 -2.31 0.54 26.0
21.72 -2.4 0.91 13.0
20.78 -2.33 1.21 11.0
21.21 -2.41 1.58 62.0
20.89 -2.37 -0.12 77.0
20.88 -2.39 0.22 133.0
20.87 -2.42 0.56 137.0
20.87 -2.45 0.9 136.0
20.88 -2.49 1.25 122.0
21.65 -2.61 1.65 47.0
20.95 -2.52 -0.09 63.0
20.96 -2.55 0.25 115.0
20.97 -2.58 0.59 110.0
21.03 -2.62 0.94 75.0
21.0 -2.65 1.28 109.0
22.06 -2.82 1.71 43.0
22.08 -2.81 -0.07 17.0
22.0 -2.83 0.29 17.0
22.05 -2.87 0.65 4.0
21.14 -2.78 0.97 95.0
21.1 -2.81 1.31 113.0
22.9 -3.09 1.8 19.0
21.21 -2.84 -0.05 114.0
21.22 -2.88 0.3 114.0
22.01 -3.02 0.67 17.0
21.24 -2.95 0.99 77.0
21.2 -2.97 1.34 106.0
23.62 -3.36 1.88 13.0
21.79 -3.08 -0.03 20.0
21.37 -3.05 0.32 13.0
21.34 -3.08 0.67 111.0
21.33 -3.11 1.02 112.0
21.3 -3.14 1.37 110.0
23.83 -3.56 1.93 10.0
21.39 -3.17 -0.01 10.0
21.42 -3.21 0.34 95.0
21.44 -3.24 0.69 115.0
21.42 -3.27 1.04 115.0
21.41 -3.31 1.4 108.0
23.52 -3.68 1.92 20.0
24.62 -3.82 0.01 2.0
22.21 -3.48 0.37 7.0
22.19 -3.52 0.74 7.0
21.53 -3.45 1.07 111.0
21.52 -3.48 1.42 103.0
22.94 -3.75 1.9 21.0
21.61 -3.51 0.03 136.0
21.63 -3.54 0.38 121.0
21.61 -3.58 0.73 1.0
21.63 -3.61 1.09 110.0
21.63 -3.65 1.45 94.0
22.64 -3.87 1.89 19.0
21.75 -3.68 0.04 48.0
21.74 -3.72 0.4 14.0
21.75 -3.75 0.75 118.0
21.71 -3.78 1.11 110.0
21.77 -3.83 1.47 81.0
22.8 -4.06 1.92 19.0
21.77 -3.84 0.05 96.0
21.79 -3.88 0.41 112.0
21.8 -3.92 0.77 111.0
21.82 -3.96 1.13 110.0
21.94 -4.02 1.5 66.0
22.91 -4.25 1.94 14.0
21.89 -4.02 0.06 78.0
21.91 -4.06 0.42 10.0
21.93 -4.1 0.78 12.0
22.28 -4.21 1.16 3.0
22.11 -4.22 1.52 51.0
23.05 -4.44 1.97 13.0
22.06 -4.21 0.07 78.0
23.43 -4.51 0.46 27.0
22.12 -4.3 0.8 7.0
39.84 -7.81 2.1 0.0
22.31 -4.42 1.54 28.0
23.2 -4.64 1.99 11.0
22.22 -4.4 0.08 76.0
26.09 -5.21 0.52 10.0
26.14 -5.26 0.95 58.0
26.17 -5.32 1.39 77.0
22.67 -4.65 1.57 20.0
23.08 -4.78 1.99 3.0
22.39 -4.59 0.09 76.0
26.3 -5.44 0.53 10.0
22.47 -4.69 0.82 7.0
26.1 -5.49 1.39 0.0
22.88 -4.86 1.59 20.0
116.01 -24.9 10.02 91.0
22.55 -4.79 0.09 72.0
26.53 -5.68 0.54 12.0
22.6 -4.88 0.83 3.0
22.71 -4.95 1.21 0.0
23.17 -5.09 1.62 20.0
115.99 -25.76 10.04 84.0
22.73 -4.99 0.09 73.0
26.61 -5.89 0.54 10.0
22.79 -5.09 0.84 2.0
22.89 -5.15 1.22 0.0
26.0 -5.91 1.82 4.0
115.81 -26.57 10.03 63.0
22.91 -5.2 0.09 72.0
23.07 -5.27 0.47 0.0
23.0 -5.3 0.85 2.0
23.01 -5.35 1.23 13.0
26.21 -6.15 1.83 4.0
24.1 -5.71 2.09 4.0
23.09 -5.4 0.09 77.0
23.12 -5.45 0.47 69.0
23.15 -5.5 0.85 14.0
26.99 -6.47 1.44 27.0
23.7 -5.73 1.66 21.0
24.31 -5.93 2.1 7.0
23.27 -5.61 0.08 72.0
27.27 -6.63 0.54 0.0
27.39 -6.71 1.0 27.0
27.32 -6.75 1.45 39.0
24.04 -5.99 1.67 22.0
114.91 -28.91 9.91 54.0
23.46 -5.83 0.08 69.0
97.48 -24.42 1.91 17.0
23.52 -5.94 0.85 2.0
27.25 -6.94 1.44 31.0
24.33 -6.25 1.69 23.0
114.58 -29.69 9.85 110.0
23.66 -6.05 0.06 72.0
23.71 -6.11 0.46 4.0
23.71 -6.16 0.85 3.0
23.78 -6.23 1.24 1.0
24.52 -6.48 1.69 23.0
115.86 -30.88 9.91 56.0
23.86 -6.28 0.05 66.0
24.48 -6.49 0.46 24.0
23.92 -6.39 0.84 3.0
23.95 -6.45 1.24 1.0
24.8 -6.74 1.7 23.0
115.6 -31.68 9.84 82.0
24.06 -6.51 0.04 61.0
24.2 -6.59 0.44 10.0
74.11 -20.35 2.56 150.0
73.95 -20.46 3.78 83.0
24.99 -6.97 1.69 25.0
115.31 -32.46 9.74 119.0
24.25 -6.74 0.02 56.0
24.29 -6.8 0.42 57.0
24.33 -6.86 0.82 68.0
24.37 -6.93 1.23 70.0
25.34 -7.26 1.7 26.0
115.4 -33.36 9.67 22.0
24.47 -6.98 0.0 41.0
24.66 -7.14 0.81 1.0
24.58 -7.17 1.22 69.0
25.22 -7.42 1.67 25.0
115.14 -34.16 9.55 28.0
24.76 -7.25 -0.02 35.0
28.77 -8.48 0.45 2.0
61.95 -18.4 1.99 16.0
24.8 -7.42 1.21 59.0
25.65 -7.74 1.68 27.0
114.49 -34.83 9.4 57.0
18.09 -5.43 -0.04 3.0
25.01 -7.56 0.36 66.0
25.05 -7.62 0.78 7.0
25.03 -7.68 1.19 53.0
25.96 -8.02 1.67 29.0
114.18 -35.59 9.25 59.0
25.18 -7.75 -0.08 4.0
25.24 -7.82 0.34 113.0
25.24 -7.87 0.75 4.0
25.24 -7.93 1.17 67.0
25.83 -8.18 1.63 27.0
113.84 -36.35 9.1 88.0
25.45 -8.02 -0.11 6.0
25.42 -8.06 0.31 120.0
25.42 -8.12 0.73 65.0
25.46 -8.19 1.15 60.0
26.14 -8.48 1.62 30.0
26.75 -8.74 2.11 3.0
17.52 -5.65 -0.1 26.0
25.62 -8.32 0.28 17.0
25.63 -8.38 0.7 1.0
14.94 -4.92 0.66 7.0
14.93 -4.95 0.9 7.0
14.91 -4.98 1.15 11.0
17.53 -5.79 -0.13 21.0
25.88 -8.6 0.24 16.0
25.94 -8.68 0.67 0.0
14.93 -5.03 0.63 16.0
14.88 -5.05 0.88 13.0
14.88 -5.09 1.13 16.0
26.04 -8.79 -0.23 49.0
26.09 -8.86 0.2 26.0
26.16 -8.94 0.64 2.0
14.98 -5.16 0.61 8.0
14.9 -5.17 0.86 7.0
14.99 -5.24 1.11 28.0
15.09 -5.21 -0.16 11.0
15.03 -5.22 0.09 14.0
15.01 -5.24 0.34 16.0
14.98 -5.27 0.59 29.0
14.95 -5.3 0.84 18.0
14.93 -5.33 1.09 19.0
14.98 -5.28 -0.18 22.0
14.97 -5.31 0.06 19.0
14.96 -5.34 0.31 23.0
14.95 -5.37 0.56 16.0
14.95 -5.41 0.81 16.0
14.97 -5.46 1.06 15.0
14.96 -5.39 -0.21 13.0
14.97 -5.42 0.04 14.0
14.98 -5.46 0.28 13.0
15.16 -5.56 0.54 0.0
27.01 -9.98 1.42 27.0
27.07 -9.95 -0.44 34.0
27.09 -10.02 0.01 32.0
27.2 -10.18 0.92 1.0
27.28 -10.28 1.38 14.0
58.27 -22.12 3.91 5.0
27.29 -10.23 -0.5 6.0
27.35 -10.31 -0.05 30.0
29.86 -11.32 0.45 3.0
29.9 -11.41 0.94 2.0
27.54 -10.58 1.33 6.0
57.61 -22.3 3.75 48.0
13.25 -5.07 -0.27 182.0
27.62 -10.62 -0.11 38.0
28.61 -11.06 0.36 36.0
29.73 -11.57 0.88 7.0
28.16 -11.03 1.3 7.0
57.61 -22.72 3.62 64.0
13.24 -5.16 -0.3 193.0
27.9 -10.94 -0.17 41.0
27.97 -11.03 0.29 32.0
28.02 -11.11 0.76 22.0
28.16 -11.24 1.23 24.0
56.29 -22.63 3.41 60.0
13.21 -5.25 -0.33 160.0
28.45 -11.37 -0.25 29.0
28.53 -11.46 0.23 15.0
28.64 -11.57 0.7 11.0
28.62 -11.64 1.18 20.0
55.64 -22.78 3.23 46.0
28.8 -11.66 -0.8 9.0
28.9 -11.76 -0.33 6.0
29.0 -11.87 0.15 16.0
29.07 -11.96 0.64 32.0
29.2 -12.09 1.13 30.0
55.03 -22.94 3.06 25.0
29.3 -12.08 -0.89 49.0
29.3 -12.14 -0.41 74.0
29.33 -12.22 0.08 19.0
29.59 -12.39 0.57 1.0
29.96 -12.62 1.08 3.0
31.47 -13.35 1.66 29.0
30.45 -12.78 -1.02 13.0
31.08 -13.11 -0.52 33.0
31.11 -13.19 0.0 54.0
32.12 -13.69 0.53 24.0
32.18 -13.8 1.07 31.0
31.26 -13.49 1.56 41.0
30.53 -13.04 -1.11 6.0
30.4 -13.04 -0.6 151.0
30.81 -13.29 -0.09 66.0
30.78 -13.35 0.42 0.0
32.35 -14.11 0.98 22.0
49.79 -21.85 2.35 0.0
32.84 -14.27 -1.29 7.0
30.66 -13.38 -0.69 16.0
30.56 -13.4 -0.18 43.0
30.47 -13.43 0.32 14.0
32.5 -14.41 0.89 23.0
32.18 -14.35 1.42 21.0
31.02 -13.71 -1.32 6.0
30.78 -13.66 -0.8 7.0
30.41 -13.55 -0.28 108.0
30.4 -13.62 0.23 78.0
32.03 -14.43 0.78 8.0
32.41 -14.69 1.33 7.0
30.16 -13.55 -1.38 5.0
30.45 -13.73 -0.89 95.0
30.39 -13.77 -0.38 109.0
30.38 -13.83 0.13 103.0
30.38 -13.91 0.64 11.0
32.69 -15.05 1.23 7.0
28.01 -12.79 -1.38 6.0
30.45 -13.96 -0.99 60.0
30.39 -13.99 -0.48 102.0
30.39 -14.05 0.03 81.0
32.86 -15.28 0.58 2.0
30.36 -14.19 1.04 76.0
24.94 -11.57 -1.32 7.0
30.4 -14.15 -1.09 31.0
30.4 -14.21 -0.59 101.0
30.39 -14.27 -0.08 86.0
30.38 -14.34 0.43 100.0
30.38 -14.42 0.94 88.0
24.15 -11.37 -1.36 13.0
30.44 -14.39 -1.21 7.0
30.46 -14.46 -0.7 88.0
32.56 -15.52 -0.2 8.0
30.4 -14.56 0.32 1.0
24.18 -11.64 0.66 8.0
23.11 -11.05 -1.39 21.0
31.2 -14.97 -1.35 6.0
30.52 -14.7 -0.81 15.0
24.39 -11.79 -0.24 24.0
24.4 -11.86 0.17 26.0
24.14 -11.79 0.57 8.0
22.15 -10.75 -1.42 17.0
24.34 -11.85 -1.15 44.0
30.55 -14.93 -0.93 37.0
30.53 -14.98 -0.42 11.0
30.56 -15.06 0.09 102.0
30.55 -15.13 0.6 8.0
21.11 -10.4 -1.44 19.0
24.34 -12.02 -1.25 5.0
30.56 -15.14 -1.06 27.0
30.58 -15.21 -0.54 97.0
30.58 -15.28 -0.03 5.0
33.32 -16.73 0.52 1.0
20.14 -10.06 -1.46 17.0
24.15 -12.1 -1.34 5.0
30.53 -15.34 -1.18 6.0
30.62 -15.44 -0.67 35.0
30.63 -15.51 -0.15 87.0
30.62 -15.58 0.36 70.0
19.41 -9.83 -1.48 12.0
23.33 -11.85 -1.39 16.0
31.69 -16.14 -1.36 2.0
30.64 -15.66 -0.8 52.0
30.94 -15.87 -0.29 7.0
30.65 -15.8 0.23 91.0
19.37 -9.94 -1.57 17.0
22.28 -11.46 -1.43 19.0
29.27 -15.1 -1.39 7.0
30.65 -15.87 -0.93 79.0
30.65 -15.93 -0.42 65.0
30.64 -15.99 0.09 78.0
18.79 -9.77 -1.61 16.0
21.31 -11.11 -1.46 17.0
27.54 -14.39 -1.43 6.0
30.69 -16.09 -1.07 42.0
30.7 -16.15 -0.55 71.0
30.71 -16.22 -0.04 57.0
17.73 -9.34 -1.6 15.0
20.36 -10.75 -1.49 18.0
26.3 -13.92 -1.48 4.0
31.25 -16.58 -1.23 18.0
30.79 -16.39 -0.7 64.0
30.79 -16.46 -0.18 67.0
17.17 -9.16 -1.63 43.0
20.31 -10.85 -1.58 19.0
23.16 -12.4 -1.41 11.0
29.76 -15.98 -1.31 7.0
31.01 -16.71 -0.84 39.0
30.84 -16.68 -0.32 66.0
16.7 -9.02 -1.66 13.0
19.44 -10.52 -1.61 18.0
22.11 -11.98 -1.45 15.0
28.87 -15.69 -1.41 9.0
31.5 -17.16 -1.01 18.0
30.93 -16.91 -0.47 67.0
15.82 -8.65 -1.66 10.0
18.51 -10.13 -1.62 14.0
21.32 -11.69 -1.51 14.0
26.82 -14.73 -1.44 8.0
31.7 -17.46 -1.17 11.0
31.0 -17.13 -0.62 66.0
15.13 -8.37 -1.66 8.0
17.5 -9.69 -1.62 14.0
21.1 -11.7 -1.6 21.0
25.68 -14.26 -1.51 5.0
30.07 -16.74 -1.26 6.0
31.14 -17.39 -0.78 54.0
14.51 -8.11 -1.67 7.0
16.97 -9.5 -1.66 13.0
20.0 -11.21 -1.61 14.0
22.64 -12.71 -1.45 14.0
29.01 -16.32 -1.36 8.0
31.37 -17.7 -0.94 24.0
13.89 -7.85 -1.67 7.0
16.17 -9.15 -1.67 8.0
18.94 -10.73 -1.63 12.0
22.01 -12.48 -1.52 16.0
27.82 -15.81 -1.45 9.0
31.81 -18.12 -1.12 13.0
13.35 -7.63 -1.68 7.0
15.4 -8.81 -1.67 7.0
18.0 -10.29 -1.64 8.0
21.64 -12.4 -1.61 22.0
25.54 -14.65 -1.47 6.0
30.33 -17.44 -1.22 7.0
12.84 -7.42 -1.68 6.0
14.68 -8.48 -1.67 5.0
17.08 -9.87 -1.65 8.0
20.41 -11.81 -1.63 12.0
22.72 -13.16 -1.42 5.0
29.11 -16.9 -1.33 9.0
12.37 -7.22 -1.69 6.0
14.05 -8.19 -1.68 6.0
16.39 -9.56 -1.68 8.0
19.26 -11.24 -1.64 9.0
22.59 -13.2 -1.54 14.0
28.03 -16.41 -1.43 9.0
11.93 -7.03 -1.7 6.0
13.44 -7.91 -1.68 6.0
15.6 -9.18 -1.68 4.0
18.25 -10.74 -1.66 6.0
21.86 -12.89 -1.61 16.0
26.12 -15.42 -1.48 5.0
11.5 -6.84 -1.71 6.0
12.91 -7.67 -1.69 5.0
14.81 -8.8 -1.68 5.0
17.09 -10.15 -1.65 3.0
20.64 -12.27 -1.64 9.0
24.43 -14.54 -1.52 19.0
11.13 -6.67 -1.72 7.0
12.41 -7.44 -1.7 6.0
14.12 -8.46 -1.69 5.0
16.37 -9.8 -1.67 4.0
19.36 -11.6 -1.64 5.0
23.07 -13.83 -1.57 26.0
10.74 -6.5 -1.72 7.0
11.96 -7.23 -1.71 7.0
13.51 -8.16 -1.69 5.0
15.63 -9.44 -1.69 5.0
18.27 -11.03 -1.66 4.0
21.92 -13.24 -1.61 12.0
10.37 -6.33 -1.73 7.0
11.52 -7.02 -1.72 6.0
12.95 -7.88 -1.7 5.0
14.87 -9.04 -1.7 4.0
17.26 -10.5 -1.67 2.0
20.6 -12.53 -1.64 6.0
10.04 -6.17 -1.74 8.0
11.11 -6.82 -1.72 6.0
12.42 -7.61 -1.71 4.0
14.14 -8.66 -1.7 5.0
16.31 -9.99 -1.67 4.0
19.33 -11.84 -1.65 5.0
9.7 -6.01 -1.74 8.0
10.71 -6.62 -1.73 5.0
11.92 -7.36 -1.71 6.0
13.48 -8.31 -1.7 4.0
15.58 -9.6 -1.69 3.0
18.19 -11.21 -1.66 4.0
9.38 -5.86 -1.74 7.0
10.33 -6.43 -1.73 6.0
11.49 -7.14 -1.72 6.0
12.92 -8.02 -1.71 4.0
14.79 -9.17 -1.7 5.0
17.19 -10.65 -1.67 3.0
9.07 -5.71 -1.74 8.0
9.99 -6.26 -1.74 7.0
11.08 -6.93 -1.73 6.0
12.37 -7.73 -1.71 5.0
14.06 -8.77 -1.7 4.0
16.26 -10.13 -1.68 3.0
8.77 -5.55 -1.74 8.0
9.66 -6.1 -1.75 8.0
10.67 -6.72 -1.74 5.0
11.89 -7.47 -1.72 5.0
13.42 -8.41 -1.71 4.0
15.48 -9.69 -1.7 3.0
8.49 -5.41 -1.74 8.0
9.33 -5.93 -1.75 8.0
10.29 -6.51 -1.74 5.0
11.44 -7.22 -1.73 5.0
12.85 -8.1 -1.71 4.0
14.75 -9.28 -1.71 4.0
8.18 -5.24 -1.73 11.0
9.01 -5.75 -1.74 9.0
9.94 -6.33 -1.74 7.0
11.0 -6.98 -1.73 6.0
12.3 -7.79 -1.72 5.0
13.97 -8.83 -1.7 3.0
7.92 -5.11 -1.73 40.0
8.73 -5.6 -1.75 8.0
9.61 -6.14 -1.75 7.0
10.61 -6.76 -1.74 5.0
11.8 -7.5 -1.72 5.0
13.33 -8.45 -1.71 3.0
7.76 -5.03 -1.75 37.0
8.43 -5.43 -1.74 8.0
9.3 -5.97 -1.75 7.0
10.25 -6.56 -1.74 5.0
11.37 -7.25 -1.73 5.0
12.75 -8.12 -1.71 4.0
7.54 -4.91 -1.75 11.0
8.18 -5.29 -1.75 10.0
8.99 -5.8 -1.75 7.0
9.91 -6.36 -1.75 6.0
10.95 -7.01 -1.73 5.0
12.23 -7.81 -1.72 4.0
7.3 -4.77 -1.74 8.0
7.86 -5.11 -1.73 32.0
8.69 -5.62 -1.75 8.0
9.57 -6.17 -1.75 7.0
10.56 -6.78 -1.74 5.0
11.73 -7.51 -1.72 4.0
7.03 -4.61 -1.73 21.0
7.69 -5.01 -1.74 51.0
8.4 -5.45 -1.75 9.0
9.26 -5.98 -1.75 8.0
10.19 -6.56 -1.74 4.0
11.3 -7.25 -1.73 4.0
6.89 -4.53 -1.74 31.0
7.53 -4.93 -1.76 13.0
8.15 -5.3 -1.75 10.0
8.95 -5.8 -1.75 8.0
9.85 -6.35 -1.75 7.0
10.91 -7.01 -1.74 5.0
6.73 -4.44 -1.75 9.0
7.28 -4.78 -1.75 10.0
7.85 -5.12 -1.74 25.0
8.66 -5.62 -1.75 8.0
9.53 -6.16 -1.75 8.0
10.52 -6.77 -1.74 5.0
6.54 -4.33 -1.74 8.0
7.01 -4.61 -1.73 26.0
7.67 -5.01 -1.74 50.0
8.37 -5.45 -1.75 8.0
9.24 -5.98 -1.75 7.0
10.16 -6.55 -1.74 6.0
6.39 -4.24 -1.75 7.0
6.88 -4.53 -1.74 31.0
7.5 -4.91 -1.75 12.0
8.14 -5.3 -1.75 10.0
8.92 -5.78 -1.75 8.0
9.83 -6.34 -1.75 7.0
6.26 -4.16 -1.75 6.0
6.71 -4.43 -1.74 9.0
7.28 -4.77 -1.75 9.0
7.88 -5.14 -1.74 30.0
8.64 -5.6 -1.75 9.0
9.52 -6.14 -1.75 8.0
6.12 -4.08 -1.75 6.0
6.54 -4.32 -1.74 7.0
7.01 -4.6 -1.73 27.0
7.68 -5.01 -1.75 47.0
8.37 -5.42 -1.74 10.0
9.23 -5.95 -1.75 7.0
5.99 -3.99 -1.76 5.0
6.4 -4.23 -1.75 8.0
6.9 -4.53 -1.75 28.0
7.49 -4.88 -1.75 9.0
8.13 -5.27 -1.75 10.0
8.94 -5.76 -1.75 8.0
5.86 -3.91 -1.76 5.0
6.26 -4.14 -1.75 6.0
6.72 -4.41 -1.75 8.0
7.28 -4.74 -1.75 9.0
7.87 -5.09 -1.74 39.0
8.66 -5.57 -1.75 8.0
5.73 -3.83 -1.76 5.0
6.14 -4.06 -1.76 6.0
6.55 -4.3 -1.74 8.0
7.05 -4.59 -1.73 30.0
7.72 -4.99 -1.75 31.0
8.4 -5.4 -1.74 9.0
5.61 -3.74 -1.76 5.0
6.0 -3.97 -1.75 5.0
6.42 -4.21 -1.75 6.0
6.94 -4.51 -1.75 20.0
7.5 -4.84 -1.75 9.0
8.11 -5.2 -1.73 15.0
5.5 -3.67 -1.76 5.0
5.87 -3.87 -1.75 5.0
6.31 -4.13 -1.75 6.0
6.74 -4.38 -1.74 8.0
7.3 -4.7 -1.74 11.0
7.93 -5.08 -1.74 46.0
5.39 -3.59 -1.76 4.0
5.76 -3.8 -1.76 5.0
6.18 -4.04 -1.76 5.0
6.59 -4.27 -1.74 7.0
7.1 -4.56 -1.73 33.0
7.77 -4.96 -1.75 18.0
5.28 -3.51 -1.76 4.0
5.66 -3.72 -1.76 5.0
6.04 -3.94 -1.75 5.0
6.47 -4.18 -1.75 6.0
7.0 -4.49 -1.75 14.0
7.58 -4.82 -1.75 10.0
5.17 -3.43 -1.75 4.0
5.55 -3.64 -1.76 4.0
5.93 -3.85 -1.76 4.0
6.36 -4.1 -1.75 6.0
6.81 -4.35 -1.74 8.0
7.33 -4.65 -1.73 16.0
5.09 -3.37 -1.76 5.0
5.44 -3.56 -1.76 4.0
5.82 -3.77 -1.76 5.0
6.25 -4.01 -1.76 5.0
6.67 -4.24 -1.74 6.0
7.2 -4.55 -1.74 33.0
4.99 -3.29 -1.75 3.0
5.33 -3.48 -1.75 4.0
5.72 -3.69 -1.76 4.0
6.12 -3.91 -1.75 5.0
6.56 -4.15 -1.74 6.0
7.09 -4.46 -1.74 11.0
4.9 -3.22 -1.75 3.0
5.24 -3.4 -1.75 5.0
5.62 -3.61 -1.76 4.0
6.01 -3.83 -1.75 5.0
6.45 -4.07 -1.75 6.0
6.9 -4.32 -1.73 8.0
4.82 -3.15 -1.75 3.0
5.16 -3.34 -1.75 5.0
5.52 -3.53 -1.76 4.0
5.91 -3.74 -1.76 4.0
6.34 -3.98 -1.75 6.0
6.78 -4.22 -1.74 7.0
4.74 -3.09 -1.75 4.0
5.08 -3.27 -1.75 4.0
5.42 -3.45 -1.75 4.0
5.82 -3.67 -1.76 5.0
6.23 -3.89 -1.75 5.0
6.67 -4.13 -1.74 6.0
4.69 -3.04 -1.75 4.0
4.98 -3.19 -1.75 4.0
5.32 -3.37 -1.75 5.0
5.72 -3.59 -1.76 5.0
6.12 -3.8 -1.75 5.0
6.58 -4.04 -1.75 6.0
4.62 -2.98 -1.75 4.0
4.91 -3.13 -1.75 4.0
5.24 -3.3 -1.75 5.0
5.63 -3.51 -1.76 5.0
6.03 -3.72 -1.75 5.0
6.47 -3.95 -1.75 6.0
4.56 -2.93 -1.75 5.0
4.84 -3.07 -1.75 4.0
5.18 -3.24 -1.75 5.0
5.53 -3.42 -1.75 4.0
5.94 -3.64 -1.75 5.0
6.37 -3.86 -1.75 5.0
4.51 -2.88 -1.75 5.0
4.78 -3.01 -1.75 4.0
5.11 -3.17 -1.75 5.0
5.45 -3.35 -1.75 5.0
5.85 -3.55 -1.75 5.0
6.27 -3.77 -1.75 5.0
4.47 -2.83 -1.76 5.0
4.71 -2.94 -1.74 5.0
5.04 -3.11 -1.75 4.0
5.38 -3.28 -1.75 5.0
5.77 -3.48 -1.75 5.0
6.18 -3.69 -1.75 5.0
4.43 -2.78 -1.76 5.0
4.67 -2.9 -1.75 5.0
4.98 -3.05 -1.75 5.0
5.3 -3.21 -1.75 5.0
5.68 -3.4 -1.75 5.0
6.1 -3.62 -1.75 5.0
4.38 -2.73 -1.76 5.0
4.57 -2.81 -1.73 6.0
4.91 -2.98 -1.75 4.0
5.25 -3.15 -1.75 6.0
5.61 -3.33 -1.75 5.0
6.03 -3.54 -1.75 4.0
4.26 -2.64 -1.73 5.0
4.57 -2.79 -1.75 5.0
4.86 -2.92 -1.75 5.0
5.19 -3.09 -1.75 5.0
5.54 -3.26 -1.74 5.0
5.95 -3.46 -1.74 5.0
